# .PCD v0.7 - Point Cloud Data file format
VERSION 0.7
FIELDS x y z
SIZE 4 4 4
TYPE F F F
COUNT 1 1 1
WIDTH 1503
HEIGHT 1
VIEWPOINT 0 0 0 1 0 0 0
POINTS 1503
DATA ascii
2.6490941 -67.1735 2.8295946
3.5542283 -67.817368 1.9400768
4.130784 -67.203865 2.6031389
4.6922541 -66.876671 2.8622036
5.232316 -66.52301 3.2108555
5.9415236 -66.625824 2.8840694
6.8659601 -67.13472 2.0280113
7.6662889 -67.178894 1.6861811
8.4996281 -67.344986 1.1338348
9.0550623 -67.156227 1.1321115
9.7609949 -67.147141 0.8019495
10.468664 -67.095596 0.48828697
11.032373 -67.006683 0.34348583
11.471234 -66.711273 0.44586182
11.932376 -66.48838 0.44781208
12.794758 -66.670372 -0.30107117
14.204874 -67.227661 -2.0185757
14.945317 -67.202385 -2.5537815
15.778475 -67.246841 -3.3703871
16.515537 -67.216164 -3.9912634
18.003744 -67.570808 -6.0919104
19.734314 -67.866096 -8.9070024
21.001431 -67.951729 -11.088849
21.36591 -67.690575 -11.060462
21.955772 -67.440948 -11.434608
22.075451 -67.144394 -10.844388
22.881117 -67.034996 -11.757421
24.09804 -66.995964 -14.006142
25.671059 -66.749466 -16.80615
26.795147 -66.389168 -18.596018
28.899197 -65.784775 -22.51688
30.584633 -64.996613 -24.959927
31.280548 -64.600075 -25.524672
31.454544 -64.488632 -25.473785
31.774151 -64.256523 -25.497219
32.321232 -63.917023 -25.84203
33.190647 -63.421799 -26.853016
34.290146 -62.805901 -28.18956
35.417557 -62.08297 -29.286915
36.084534 -61.619484 -29.858242
36.606869 -61.251358 -30.166328
37.149624 -60.90374 -30.613178
37.781326 -60.44397 -31.033791
38.239429 -60.103745 -31.3675
38.444122 -59.947395 -31.486549
39.159592 -59.397293 -32.067883
39.629414 -59.033791 -32.410954
40.041252 -58.70982 -32.665451
40.498455 -58.365475 -33.00161
40.814079 -58.115314 -33.312263
41.336399 -57.685738 -33.76561
42.053741 -57.01186 -34.323986
42.525505 -56.590691 -34.742329
43.1502 -55.994823 -35.27018
-42.217274 -57.08205 -34.650757
-41.842312 -57.422665 -34.315426
-41.120232 -58.09549 -33.476009
-39.609623 -59.354996 -31.162411
-37.869888 -60.634544 -28.299686
-35.949371 -61.891396 -24.567188
-33.619823 -62.736122 -19.384489
-30.374611 -63.009941 -11.897082
-28.380661 -63.034676 -8.3795452
-27.120964 -63.050819 -6.5627518
-26.016781 -63.07309 -5.2805672
-25.906578 -63.345963 -5.3903475
-25.97464 -63.589882 -5.8404808
-25.707565 -63.731567 -5.6844568
-25.027985 -63.859718 -4.9439936
-24.196846 -63.818207 -4.0220814
-24.077473 -64.098076 -4.311389
-23.793991 -64.206451 -4.2155514
-23.034134 -64.238869 -3.5353823
-21.535313 -63.976761 -1.7247744
-20.975777 -63.986092 -1.2457972
-20.470379 -64.091125 -0.99878216
-20.007492 -64.25032 -0.75895309
-19.315708 -64.204468 -0.20439243
-18.830135 -64.233162 0.13288307
-17.846001 -63.92672 1.1459208
-17.119476 -63.854286 1.7744265
-16.519661 -63.901123 2.1572409
-16.119034 -63.980789 2.3610907
-15.943408 -64.367851 1.9919872
-15.247432 -64.250282 2.5746651
-15.058064 -64.585983 2.2068701
-14.405091 -64.652565 2.5312958
-14.89692 -65.714203 1.0372524
-15.174045 -66.700203 -0.36993122
-14.468678 -66.840149 -0.12086868
-13.575305 -66.546402 0.67695522
-12.510859 -66.129288 1.7165079
-11.869563 -66.141731 1.9314442
-11.203223 -66.313087 1.9633999
-10.563727 -66.606354 1.8016119
-9.8796129 -66.726677 1.8469114
-9.095933 -66.351669 2.5045557
-8.3372107 -66.171303 2.9153004
-7.5344486 -65.855209 3.3802328
-6.8281803 -66.026344 3.3332815
-6.2031269 -66.181648 3.2521191
-5.5580845 -66.649612 2.8286295
-4.7626762 -66.446388 3.1005917
-4.014369 -66.691429 2.8729134
-3.3301497 -66.919106 2.7262707
-2.5199442 -66.888756 2.8063946
-1.7691545 -66.831139 2.8851643
-0.96953297 -66.730919 3.0451498
-0.24295902 -67.494347 2.2005939
0.46914721 -66.694603 3.147378
1.1762395 -66.41626 3.4878979
1.818171 -66.357285 3.5345621
2.5393929 -66.230347 3.6198683
3.4237113 -66.438324 3.2896585
3.9042335 -65.776459 3.9243145
4.5433407 -65.72757 3.8490772
5.021255 -65.475258 4.0328264
5.8940024 -65.829155 3.454834
6.5869122 -65.908569 3.1831665
7.457469 -66.097496 2.6285734
8.3696728 -66.518394 1.8424711
9.1648769 -66.615242 1.3919811
9.9564095 -66.699608 0.90904617
10.479471 -66.558159 0.84446621
10.98643 -66.309364 0.89300823
11.154362 -65.863533 1.2944536
11.738094 -65.78553 1.0371552
12.477262 -65.876389 0.51593399
13.28315 -65.998314 -0.14234066
14.593779 -66.396019 -1.5311031
15.298418 -66.357338 -1.991045
15.997993 -66.364174 -2.6230831
17.098501 -66.516243 -3.8546829
18.404165 -66.774902 -5.581337
20.074213 -67.143005 -8.2623167
20.512962 -66.947083 -8.4416018
21.186104 -66.790596 -9.1370745
21.774899 -66.614197 -9.549593
22.33136 -66.439354 -9.899128
22.936646 -66.295883 -10.39453
24.728092 -66.333 -13.782799
25.742249 -66.168976 -15.421685
27.789772 -65.886116 -19.811291
29.377167 -65.387665 -22.610239
30.319614 -65.007835 -23.82943
30.689404 -64.761978 -23.923973
31.171967 -64.454674 -24.281769
31.67252 -64.171005 -24.652168
32.872753 -63.495979 -25.981529
33.622391 -63.048279 -26.814049
35.033081 -62.255165 -28.549488
35.997044 -61.644936 -29.525753
36.686337 -61.182747 -30.107105
37.302177 -60.762604 -30.607025
37.980019 -60.256851 -31.070679
38.311321 -60.026085 -31.329613
38.615208 -59.786201 -31.411564
39.107803 -59.411293 -31.856167
39.599808 -59.038406 -32.231907
40.201523 -58.573135 -32.640915
40.561024 -58.301773 -32.919346
40.882141 -58.041649 -33.239811
41.422138 -57.578896 -33.652725
42.087811 -56.964157 -34.216782
42.552032 -56.567665 -34.547554
43.304234 -55.838905 -35.187588
43.84903 -55.338276 -35.668972
-43.137558 -56.243713 -35.481724
-42.486427 -56.824654 -34.755932
-42.110432 -57.154106 -34.534931
-41.926888 -57.294811 -34.60553
-41.795246 -57.414696 -34.568989
-41.185966 -57.989624 -34.029953
-40.269547 -58.755283 -32.947807
-36.381001 -61.594574 -25.655224
-30.9758 -62.607063 -12.836818
-28.708736 -62.668365 -8.6491108
-27.556789 -62.742607 -6.9588623
-26.093277 -62.626938 -5.1747866
-26.053139 -62.837906 -5.2988214
-26.130589 -63.145874 -5.7486095
-25.689648 -63.302094 -5.3912477
-25.039028 -63.303017 -4.6660299
-24.163448 -63.24968 -3.686883
-24.183838 -63.610947 -4.1806059
-24.055702 -63.854584 -4.383625
-23.46199 -63.830284 -3.8594217
-22.071438 -63.536903 -2.1903086
-21.524696 -63.683243 -1.8349571
-21.155434 -63.853363 -1.6643515
-20.50996 -63.928795 -1.2307987
-19.288239 -63.588959 0.15456772
-18.298698 -63.243507 1.2530022
-17.810619 -63.382309 1.4916601
-17.271713 -63.452538 1.6530523
-16.914074 -63.529045 1.7712107
-16.352886 -63.550835 2.1301785
-15.715608 -63.553642 2.6896362
-15.101991 -63.52269 3.0248699
-14.983237 -63.966438 2.6211329
-14.669414 -64.214005 2.5015621
-15.190234 -65.342712 0.92486095
-15.396436 -66.314995 -0.38589954
-14.828912 -66.610771 -0.39445305
-13.863067 -66.357773 0.47050762
-12.637517 -65.715691 1.7688522
-11.873281 -65.646454 2.2110786
-10.979554 -65.390297 2.7769623
-10.386874 -65.496185 2.7956123
-9.7242002 -65.579987 2.8992977
-9.0579195 -65.743256 2.902586
-8.3806543 -65.709511 3.0475969
-7.5828876 -65.425056 3.4840231
-6.9313402 -65.697716 3.2912741
-6.2311201 -65.928566 3.1804399
-5.631773 -66.628319 2.5068417
-4.7785206 -66.338242 2.9239435
-4.0940437 -66.804428 2.5127831
-3.2987757 -66.437256 2.9240017
-2.5224676 -66.408867 3.0236139
-1.7384605 -66.426834 3.048274
-1.0595922 -67.122383 2.2914553
-0.26617908 -67.69239 1.6504765
0.49114418 -67.273041 2.1951103
1.2014403 -66.169884 3.4342089
1.8443866 -65.562576 3.9585981
2.5067239 -65.189949 4.2886515
3.1888461 -65.180733 4.2901077
3.7810411 -64.883766 4.4924154
4.3713942 -64.776482 4.4842539
4.9609089 -64.679642 4.4837618
5.6859732 -64.917152 4.1228676
6.53055 -65.262688 3.5734024
7.2656984 -65.287964 3.243371
8.3217344 -65.808548 2.2974834
9.1851177 -66.017006 1.7264328
9.8805914 -66.036263 1.4349899
10.479929 -65.893974 1.2708759
11.021547 -65.746468 1.1557894
11.268339 -65.3526 1.484498
11.704929 -65.187439 1.3835163
12.255188 -65.125862 1.114603
12.807575 -65.050652 0.85837173
13.5935 -65.155098 0.28921318
14.529997 -65.29393 -0.49980736
15.959986 -65.739891 -2.1311531
16.866728 -65.765053 -2.9496584
17.711441 -65.788124 -3.8299055
19.118855 -66.162392 -5.7440128
19.726894 -66.096024 -6.2621689
20.083069 -65.809532 -6.1869011
20.998089 -65.880951 -7.3901091
21.735119 -65.803307 -8.1800089
22.891747 -65.761185 -9.8148775
24.083271 -65.767715 -11.571535
25.093948 -65.682663 -13.253222
26.281124 -65.525162 -15.218103
27.946995 -65.360657 -18.766851
29.483185 -64.994141 -21.686066
30.282372 -64.720085 -22.732182
31.086536 -64.330963 -23.602356
31.516224 -64.0896 -24.001986
32.147038 -63.735664 -24.451893
32.729481 -63.38868 -25.029572
33.989941 -62.734314 -26.735916
35.530003 -61.872093 -28.674694
36.476044 -61.252731 -29.512596
37.088085 -60.859596 -30.14724
37.854538 -60.300667 -30.751015
38.442062 -59.89344 -31.219486
38.708965 -59.676476 -31.378868
39.1544 -59.350182 -31.716282
39.676037 -58.963448 -32.175961
40.262383 -58.515152 -32.574932
40.609955 -58.245277 -32.793636
40.948135 -57.960411 -33.060886
41.487926 -57.493576 -33.483585
42.200729 -56.862675 -34.088406
42.734604 -56.371777 -34.44857
43.26833 -55.86158 -34.911491
43.877415 -55.291271 -35.571812
44.258957 -54.932648 -35.836796
44.706345 -54.513939 -36.21925
-44.824547 -54.517384 -36.900574
-43.519978 -55.866283 -35.71661
-42.682426 -56.634399 -34.870426
-42.44611 -56.838562 -34.832512
-42.956028 -56.377647 -35.74604
-43.525936 -55.748806 -36.554577
-43.970413 -55.263565 -37.21217
-42.424141 -56.808411 -35.707096
-39.809872 -59.148483 -32.161049
-32.358654 -62.208916 -15.29926
-29.607643 -62.26944 -9.9935713
-28.726013 -62.386124 -8.6978626
-27.489845 -62.403572 -6.8871469
-26.590725 -62.422676 -5.7990379
-26.281185 -62.622688 -5.6830511
-25.841091 -62.772423 -5.3434582
-25.4729 -62.913063 -5.0424261
-24.958363 -62.980705 -4.5800428
-24.70483 -63.176147 -4.7691507
-24.518593 -63.463219 -4.8821783
-23.981686 -63.531876 -4.4963827
-23.196941 -63.455215 -3.5785418
-22.480305 -63.504227 -2.9370661
-21.814579 -63.555054 -2.3784504
-20.740871 -63.372208 -1.2578058
-19.109413 -62.881889 0.62346172
-18.334404 -62.655937 1.3778248
-17.901989 -62.765907 1.527873
-17.451851 -62.878746 1.6438761
-17.093998 -63.033821 1.7811537
-16.127853 -62.83709 2.6806412
-15.209319 -62.599854 3.5101223
-15.001674 -62.921669 3.2967634
-15.167714 -63.341385 2.6615248
-15.035274 -63.862785 2.2332945
-15.450656 -64.951454 0.82938862
-15.468389 -65.736061 -0.09193325
-14.902091 -65.941071 0.039105415
-14.039096 -65.955566 0.5389328
-12.449805 -64.832855 2.5325451
-11.557996 -64.401062 3.2082167
-10.82303 -64.374634 3.4766369
-10.164403 -64.453796 3.6004353
-9.6664553 -64.812698 3.3892288
-9.1015139 -65.18808 3.1630869
-8.4512224 -65.325134 3.1962795
-7.6710863 -64.957626 3.668828
-6.9977894 -65.209312 3.5486765
-6.2471371 -65.442123 3.4334507
-5.6299324 -66.053909 2.8267574
-4.7733583 -65.934601 3.0479116
-4.03619 -66.026787 3.003315
-3.285346 -65.589851 3.5461426
-2.4999504 -65.338783 3.7998085
-1.7652884 -65.881714 3.3249502
-1.0035257 -66.925606 2.2192612
-0.21767235 -67.128822 2.0109396
0.52746773 -66.341721 2.9637232
1.2131143 -65.100075 4.1888285
1.8222957 -64.259636 4.8578272
2.4759259 -64.318504 4.7711515
3.1941767 -64.23996 4.8208132
3.7441497 -64.161942 4.8473749
4.2981515 -64.033966 4.8694468
4.9013987 -63.911224 4.8636217
5.5959849 -64.123474 4.5389681
6.4787107 -64.47509 3.9719992
7.3880897 -64.830566 3.3567486
8.3897018 -65.265564 2.5567923
9.278924 -65.48037 1.9486151
9.9298363 -65.392708 1.7335844
10.560595 -65.238785 1.5731316
11.071887 -65.114815 1.4345312
11.391638 -64.821106 1.5932407
11.65919 -64.50206 1.7464609
12.056039 -64.404846 1.6517172
12.782837 -64.43084 1.1991444
13.503187 -64.474762 0.71073055
14.261209 -64.474907 0.26104736
15.378447 -64.747681 -0.88995075
16.611202 -64.99659 -2.2091265
17.385754 -65.033775 -2.8792667
18.483677 -65.226883 -4.0787258
19.367214 -65.220604 -5.0165768
19.807262 -65.113159 -5.190506
20.23571 -64.951683 -5.4100122
21.030483 -64.923225 -6.2266121
22.28965 -64.982826 -7.992938
23.751213 -65.073326 -10.350924
24.600193 -65.052444 -11.349642
25.222942 -64.925278 -12.016459
27.081192 -64.878853 -15.732336
28.36375 -64.750374 -18.284687
30.104301 -64.508484 -21.758095
30.994663 -64.142662 -23.031584
31.446472 -63.898682 -23.314671
31.542671 -63.694435 -22.818932
31.741684 -63.519417 -22.664948
33.206142 -62.969551 -24.906994
34.529823 -62.327682 -26.974735
35.694893 -61.647804 -28.264584
36.71999 -60.998627 -29.291058
37.759876 -60.356277 -30.471752
38.490768 -59.816223 -31.147068
38.931145 -59.477875 -31.428707
39.353638 -59.17205 -31.742683
39.753117 -58.870682 -32.000149
40.372135 -58.415749 -32.521984
40.724052 -58.13599 -32.761402
41.027592 -57.880394 -32.964054
41.579147 -57.391373 -33.409184
42.211136 -56.82999 -33.91861
42.806881 -56.29509 -34.342121
43.334629 -55.788635 -34.749058
43.851833 -55.310223 -35.249889
44.400387 -54.78146 -35.791496
45.028687 -54.163147 -36.218643
45.531258 -53.685932 -36.531952
-45.484657 -53.834991 -37.370861
-45.072926 -54.266418 -36.980026
-44.068741 -55.301327 -36.181049
-42.718361 -56.589809 -34.545322
-42.467609 -56.83371 -34.394924
-44.056961 -55.19038 -36.839504
-45.228226 -53.950424 -38.141926
-45.253784 -53.913147 -38.384262
-44.06963 -55.147976 -37.326336
-39.663692 -59.271248 -31.555355
-31.301003 -61.679642 -12.423656
-29.326603 -61.739784 -9.0909548
-29.021744 -61.894112 -8.8720303
-28.300968 -62.016266 -8.0581331
-27.324043 -62.032303 -6.6846924
-26.572178 -62.118416 -5.894577
-26.265591 -62.26741 -5.6809092
-25.828705 -62.378105 -5.4133625
-25.081638 -62.401611 -4.6872854
-25.204899 -62.690842 -5.1992807
-24.920261 -62.864136 -5.2758322
-24.663467 -63.131187 -5.2956467
-23.952923 -63.159424 -4.5281715
-22.907879 -63.037773 -3.2374887
-22.34425 -63.173981 -2.8263035
-21.332237 -63.013 -1.7219219
-20.11116 -62.771492 -0.45820141
-18.765568 -62.360268 0.91822433
-18.359375 -62.455139 1.1343231
-17.79834 -62.474586 1.4806767
-17.113968 -62.449104 1.9987707
-15.894919 -62.049355 3.1484976
-15.151452 -61.982849 3.8065634
-15.037141 -62.309387 3.4556007
-15.504018 -63.058372 2.3571882
-15.508187 -63.617424 1.78195
-15.675887 -64.421806 0.88910294
-15.234365 -64.791306 0.79084587
-14.549584 -64.833778 1.1233683
-13.593024 -64.578712 1.8707228
-12.249366 -63.755913 3.2493086
-11.412711 -63.521492 3.7608442
-10.771937 -63.627342 3.8933477
-10.132146 -63.749855 4.0049324
-9.6238127 -64.098595 3.8256788
-9.0455427 -64.374023 3.7054567
-8.5206194 -64.949554 3.2838564
-7.7868891 -64.800636 3.5431442
-7.0079412 -64.69973 3.7557755
-6.3023338 -64.924011 3.6506252
-5.5709457 -65.296494 3.3747931
-4.7886162 -65.294014 3.44555
-3.9760485 -65.15786 3.6648989
-3.1866655 -64.723396 4.0853415
-2.4323654 -63.965218 4.8113794
-1.7470465 -64.721512 4.2002697
-0.99101353 -64.77066 4.1601505
-0.28757858 -65.255569 3.7009754
0.4580884 -63.79512 5.0526762
1.1402969 -63.690331 5.1404524
1.8151698 -63.461235 5.3154364
2.5066748 -63.64444 5.1494684
3.162652 -63.625702 5.1187143
3.7808018 -63.6175 5.0363188
4.3303375 -63.496964 5.0383539
5.020185 -63.558594 4.8632708
5.7471962 -63.738754 4.5750132
6.5898752 -64.036491 4.0854931
7.3350883 -64.08046 3.7840624
8.1340075 -64.224586 3.3410006
8.922389 -64.455345 2.8330164
9.596014 -64.393906 2.5902023
10.546556 -64.531769 1.9846201
11.306527 -64.637543 1.4893894
11.616676 -64.351967 1.6127243
11.859645 -64.019745 1.7869949
12.36682 -63.863327 1.6073952
13.201574 -64.056602 0.97736835
13.766093 -63.948097 0.70202541
14.297682 -63.825119 0.52359486
15.07337 -63.919296 -0.13375187
16.372074 -64.190964 -1.5057621
17.147738 -64.30352 -2.1978312
17.892975 -64.200684 -2.7607136
19.190224 -64.514893 -4.2350607
19.779972 -64.476448 -4.782979
20.48243 -64.378448 -5.3689995
21.361794 -64.422173 -6.3629179
22.172375 -64.373833 -7.266757
23.649609 -64.523125 -9.6679344
24.425602 -64.375313 -10.385139
24.992771 -64.196777 -10.933529
26.140434 -64.195694 -12.717986
28.028492 -64.226227 -16.699034
29.205074 -64.184219 -18.88608
30.596115 -63.972717 -21.490887
31.200142 -63.697075 -22.232143
31.384075 -63.469193 -21.880116
31.83876 -63.211266 -22.260674
32.738674 -62.85199 -23.372414
34.66172 -62.165276 -26.853083
35.703796 -61.552902 -27.936623
36.277447 -61.191299 -28.399605
37.494019 -60.432449 -29.795006
38.426128 -59.826385 -30.855457
38.95285 -59.426025 -31.307491
39.466637 -59.041733 -31.633705
39.878666 -58.743958 -31.919518
40.380913 -58.366379 -32.288876
40.881435 -57.975712 -32.692974
41.170433 -57.722496 -32.91893
41.642586 -57.316807 -33.275043
42.267414 -56.743214 -33.791317
42.855038 -56.223469 -34.269688
43.391369 -55.711262 -34.618279
43.873676 -55.285805 -35.056
44.495834 -54.6763 -35.560093
45.262337 -53.920204 -36.152798
45.719246 -53.47102 -36.516438
46.344822 -52.820652 -37.04155
46.735386 -52.413807 -37.326756
-45.504475 -53.862026 -37.102253
-45.09288 -54.293224 -36.732208
-44.026924 -55.361473 -35.831005
-42.523491 -56.772392 -33.949261
-42.171303 -57.106728 -33.666275
-42.298019 -56.967094 -34.200806
-45.24966 -53.930645 -38.072094
-45.673168 -53.453568 -38.677422
-43.161888 -56.080791 -36.279827
-34.812256 -61.264183 -19.986126
-29.986237 -60.952003 -9.5528622
-28.881706 -61.05912 -7.9528437
-28.655273 -61.26667 -7.9329596
-27.953827 -61.406578 -7.159955
-27.472641 -61.520508 -6.6386967
-26.900894 -61.623138 -6.1399164
-26.74543 -61.785919 -6.2406778
-26.151825 -61.870651 -5.6825256
-25.130424 -61.858543 -4.5171995
-25.275593 -62.133369 -5.0751438
-25.129311 -62.389412 -5.3440685
-25.076603 -62.657036 -5.5948763
-23.974297 -62.577278 -4.2056818
-22.831711 -62.437431 -2.8649187
-22.93388 -62.752785 -3.3719454
-21.767853 -62.644562 -2.1198816
-20.868706 -62.544296 -1.2485781
-19.914066 -62.323685 -0.24922085
-18.797089 -62.202202 0.76381016
-17.858692 -61.895164 1.6339769
-16.366039 -61.482262 3.1366549
-15.494519 -61.118523 3.9688816
-15.075253 -61.289001 4.041626
-15.031049 -61.726227 3.6745701
-15.588321 -62.514069 2.5295792
-15.866626 -63.129631 1.7033701
-15.947394 -63.915009 0.88580704
-15.422498 -64.179031 0.93984699
-14.702685 -64.263199 1.2707109
-13.831136 -64.205276 1.7861023
-12.359105 -63.32428 3.3420334
-11.385285 -62.889664 4.1271229
-10.681024 -62.823631 4.4278364
-10.102805 -62.998245 4.4219236
-9.6305151 -63.369743 4.2092943
-8.9680738 -63.538612 4.2066641
-8.6222658 -64.537895 3.3628139
-7.8333807 -64.441048 3.5897436
-7.0200958 -64.125664 4.0163765
-6.2526617 -64.146538 4.1563177
-5.52386 -64.471939 3.8874445
-4.7852049 -64.610367 3.8106766
-3.9699697 -64.632042 3.8756886
-3.1934452 -64.29512 4.2394505
-2.4743299 -64.096771 4.4354944
-1.7149696 -64.173988 4.4355364
-0.94576359 -63.663025 4.8965788
-0.25695705 -63.206917 5.2690554
0.43537807 -62.77037 5.7039576
1.1720037 -62.895164 5.5823088
1.8532648 -62.961891 5.5061216
2.5399675 -63.07222 5.3512506
3.251729 -63.302368 5.1129026
3.9984379 -63.493858 4.8586054
4.4336705 -63.013374 5.1676455
5.1224766 -63.046898 5.0013628
5.8227816 -63.122559 4.7835455
6.6418271 -63.281715 4.4035749
7.275959 -63.283211 4.1940546
7.6104107 -62.971504 4.3444128
8.313158 -63.113068 3.9725771
8.9885664 -63.116547 3.6997843
10.206566 -63.553818 2.7581053
11.187096 -63.833015 2.0062294
11.537738 -63.578178 2.0504608
11.789565 -63.264961 2.2164145
12.406996 -63.225052 1.8827848
13.545616 -63.51059 0.85200596
14.138318 -63.472046 0.51531506
14.506081 -63.357491 0.4724617
15.095654 -63.267502 0.17893505
15.97977 -63.345016 -0.65322685
16.64756 -63.360565 -1.1890097
17.339634 -63.35891 -1.708168
18.567451 -63.530823 -2.971159
19.722519 -63.742203 -4.226368
20.471334 -63.719795 -4.9824028
21.0895 -63.616982 -5.4877777
21.518934 -63.452263 -5.6915379
22.768682 -63.603539 -7.3242769
23.970127 -63.672043 -9.0744848
24.790462 -63.59314 -10.063581
25.727367 -63.530083 -11.260222
27.521111 -63.64019 -14.579501
28.976505 -63.738045 -17.70808
30.224922 -63.590431 -20.005959
31.049526 -63.376389 -21.129364
31.397034 -63.145943 -21.229061
32.440033 -62.856209 -22.864838
33.962166 -62.334541 -25.417707
35.257843 -61.746712 -27.352583
36.135078 -61.235466 -28.287636
36.787933 -60.817108 -28.795116
37.838223 -60.164604 -30.02911
38.441956 -59.784119 -30.647102
39.030689 -59.322906 -31.136711
39.516296 -58.972244 -31.414951
39.889141 -58.688065 -31.676155
40.461777 -58.248833 -32.062733
40.94104 -57.893257 -32.544323
41.382992 -57.523029 -32.935848
41.796272 -57.125465 -33.186222
42.319832 -56.657143 -33.583977
43.06707 -56.001186 -34.187424
43.520744 -55.577457 -34.584969
44.000015 -55.112286 -34.846859
44.612175 -54.543911 -35.417095
45.301903 -53.861897 -35.885841
45.957794 -53.204933 -36.426544
46.477264 -52.663391 -36.929497
46.819065 -52.306156 -37.333389
47.32811 -51.788773 -37.803162
-45.563496 -53.842106 -36.912151
-45.292233 -54.084759 -36.752937
-45.051773 -54.342499 -36.54475
-43.456013 -55.891846 -34.764263
-42.392048 -56.860558 -33.389019
-41.049919 -57.987156 -31.212269
-39.85508 -58.863037 -29.198719
-39.933273 -58.884033 -29.867596
-40.119633 -58.76783 -30.764263
-34.398849 -60.460609 -17.202965
-30.436848 -60.140961 -9.5667858
-29.499573 -60.188942 -8.3000298
-28.821922 -60.408951 -7.5205336
-28.444859 -60.617416 -7.2616568
-28.182388 -60.810883 -7.1895065
-28.174297 -61.042213 -7.6349516
-27.926708 -61.265137 -7.5230484
-27.420139 -61.337646 -7.0136261
-26.37674 -61.362694 -5.8430576
-25.129261 -61.223656 -4.2729301
-25.135563 -61.465698 -4.6177635
-25.350807 -61.803001 -5.3411074
-25.054394 -62.050583 -5.2435818
-23.567497 -61.790794 -3.318224
-22.588013 -61.659744 -2.2897186
-22.799702 -62.09433 -2.8960485
-21.839985 -62.001045 -1.9341879
-20.934837 -61.870651 -1.061655
-20.169926 -61.832138 -0.36763191
-18.936234 -61.521141 0.85531807
-17.387959 -61.092178 2.4387178
-15.851838 -60.367111 4.0234785
-15.548074 -60.647804 4.0450773
-15.452378 -60.926788 3.824996
-15.115991 -61.109985 3.8630342
-15.429257 -61.710617 2.9359636
-15.84776 -62.490326 1.9997139
-16.170956 -63.468575 0.85057449
-15.628396 -63.590553 1.0280581
-14.924399 -63.655922 1.3954353
-13.724378 -63.302582 2.3815441
-12.355563 -62.63253 3.6667261
-11.247802 -61.945847 4.6872549
-10.663136 -62.165932 4.7223959
-10.1345 -62.416229 4.6619482
-9.6350679 -62.658302 4.5435572
-8.9473886 -62.879799 4.5049334
-8.504365 -63.574265 4.0217991
-7.852603 -64.050385 3.6824112
-7.0983839 -63.942993 3.8951044
-6.2581615 -63.394348 4.4979143
-5.5307493 -63.462761 4.5549231
-4.7804394 -63.816658 4.2855215
-3.931407 -63.814827 4.3366947
-3.1669016 -63.397774 4.7701883
-2.4354353 -63.385536 4.8114214
-1.7098799 -63.393097 4.8292551
-0.95360565 -63.014725 5.1945543
-0.23863411 -62.55558 5.5839396
0.45431423 -62.53022 5.5923891
1.2052135 -62.522163 5.6023073
1.8847384 -62.471527 5.6296663
2.5692945 -62.517563 5.5302191
3.3413587 -62.917343 5.10394
4.2154217 -63.264549 4.6890039
4.7462559 -62.91169 4.8825655
5.285718 -62.656868 5.0138617
5.9759431 -62.638618 4.8522615
6.7475615 -62.751915 4.5545053
7.1985126 -62.568199 4.5745173
7.4463682 -62.167061 4.7969408
7.9949512 -62.147644 4.625905
8.6064787 -62.190704 4.3545675
9.8438454 -62.613083 3.4415522
10.802938 -62.878754 2.7484531
11.033281 -62.520393 2.9296761
11.399431 -62.418648 2.8736763
12.233409 -62.519676 2.3102818
13.811599 -62.977493 0.83349037
14.397865 -62.973381 0.47472668
14.889719 -62.759254 0.30735302
15.227505 -62.619995 0.24993324
15.800616 -62.510628 -0.031647682
16.131407 -62.377464 -0.12551689
16.946096 -62.517883 -0.89343548
18.178673 -62.685234 -2.1287766
19.178749 -62.841019 -3.1387424
20.048046 -62.922974 -4.0009136
20.781994 -62.863037 -4.6290073
21.133114 -62.619209 -4.7428102
22.504705 -62.82843 -6.4594383
23.393629 -62.836639 -7.4734068
24.435513 -62.876877 -8.8826542
25.160007 -62.760773 -9.6535072
26.50835 -62.808182 -11.691945
27.930214 -62.895142 -14.155574
29.531033 -62.918861 -17.246899
30.728359 -62.942093 -19.682789
31.691952 -62.768082 -21.259876
33.180294 -62.436531 -23.890766
34.22942 -62.089409 -25.514763
35.451237 -61.513451 -27.197014
36.465477 -60.962662 -28.358692
37.070034 -60.560913 -28.828068
37.75547 -60.138763 -29.588364
38.431149 -59.673851 -30.172516
38.910221 -59.313759 -30.462254
39.599308 -58.870049 -31.288742
40.008842 -58.560753 -31.581306
40.478493 -58.190498 -31.92775
40.995293 -57.794968 -32.405178
41.632076 -57.256104 -32.939682
42.065952 -56.866585 -33.137356
42.639214 -56.356998 -33.640396
43.145542 -55.912128 -33.984356
43.722008 -55.368599 -34.583374
44.172962 -54.934444 -34.858673
44.702995 -54.430187 -35.128689
45.446171 -53.693256 -35.783779
46.089718 -53.062737 -36.347206
46.598156 -52.558014 -36.824375
46.977619 -52.127506 -37.265923
47.554478 -51.540611 -37.78162
48.086971 -50.976013 -38.150528
-46.256008 -53.129128 -37.29018
-45.544086 -53.845512 -36.589989
-45.222591 -54.183681 -36.270538
-44.129581 -55.250221 -35.110821
-42.124386 -57.022629 -32.027058
-38.140652 -58.876907 -22.652115
-37.100491 -59.096054 -20.515656
-37.14743 -59.424171 -21.629082
-36.292137 -59.639557 -20.025587
-34.748146 -59.739349 -16.825006
-31.204552 -59.339066 -10.105021
-30.279858 -59.47332 -8.8967056
-29.89011 -59.605339 -8.5597267
-29.239521 -59.784569 -7.8657026
-28.414745 -59.907883 -6.8897572
-28.321308 -60.192139 -7.1397514
-28.271786 -60.428291 -7.4893112
-28.252583 -60.638145 -7.7809629
-27.623482 -60.752274 -7.1689472
-26.997402 -60.852333 -6.557991
-25.663181 -60.71772 -4.825881
-25.447884 -60.894028 -4.7898903
-24.873627 -60.941292 -4.2782679
-24.098965 -61.063866 -3.5039625
-23.043034 -60.879807 -2.3471823
-22.66441 -60.999268 -2.1433735
-22.787128 -61.362305 -2.6416502
-21.97961 -61.330574 -1.8694134
-21.236103 -61.309982 -1.2414665
-20.602566 -61.352005 -0.7125864
-18.956512 -60.869217 1.1046019
-17.467281 -60.366707 2.5948114
-16.504543 -60.194733 3.4741526
-16.172604 -60.376823 3.4791212
-15.752906 -60.581924 3.5610809
-15.25324 -60.616058 3.8237619
-15.49969 -61.190315 3.0620098
-16.123516 -61.99398 1.9282904
-16.380909 -62.761833 0.98159599
-15.935525 -63.124214 0.93533325
-15.18295 -63.195099 1.3302736
-14.108987 -62.911308 2.1643562
-12.567077 -62.114769 3.6875257
-11.276349 -61.405853 4.8668184
-10.74966 -61.572456 4.8871336
-10.220748 -61.787666 4.8293505
-9.5826902 -61.937225 4.8886786
-8.9715452 -62.083679 4.8895903
-8.466321 -62.695381 4.4704027
-7.8931189 -63.506859 3.841713
-7.0965137 -63.348953 4.1426973
-6.2706347 -62.935158 4.6304216
-5.5135803 -62.687981 4.9395189
-4.7483015 -62.825531 4.8783751
-3.9322786 -62.50882 5.1940203
-3.1975584 -61.522491 6.0416117
-2.4442682 -62.077698 5.6095629
-1.6883068 -62.973412 4.8997965
-0.91144466 -62.736305 5.1356707
-0.21307087 -62.095703 5.6576014
0.53468132 -62.298477 5.4972963
1.2591 -62.26593 5.4871435
1.9139252 -61.968468 5.7095366
2.6129665 -61.816216 5.7786417
3.4537935 -62.496979 5.1807528
4.5305285 -62.974808 4.5788584
4.9944329 -62.619507 4.7804251
5.5550823 -62.332024 4.8952417
6.1587124 -62.193443 4.8709612
6.8665018 -62.200478 4.628911
7.0985541 -61.759865 4.9498243
7.4919424 -61.62915 4.9283876
8.0922432 -61.528008 4.7819147
8.7956285 -61.563721 4.4594469
9.9191971 -61.979538 3.6295633
10.673469 -62.088432 3.1835604
10.979221 -61.866348 3.2019081
11.331803 -61.743591 3.1604328
11.889538 -61.650795 2.9234133
13.490938 -62.196602 1.4381771
14.377028 -62.29921 0.76799488
14.940805 -62.178268 0.48534679
15.174345 -61.936142 0.52233696
15.552666 -61.74469 0.46004772
15.895311 -61.51722 0.40593529
16.639011 -61.585449 -0.19758511
18.30785 -62.087021 -2.0673246
19.0184 -62.019104 -2.5881777
19.449959 -61.886658 -2.8416348
20.042673 -61.801445 -3.237793
20.580376 -61.738419 -3.5214214
22.290281 -62.045364 -5.6695614
23.262829 -62.137856 -6.8329401
24.038033 -62.050728 -7.6157961
24.693897 -61.99086 -8.224329
25.214912 -61.802185 -8.6227274
26.367722 -61.817711 -10.058207
28.501961 -62.177795 -14.105482
29.984295 -62.223709 -16.830147
31.515072 -62.327034 -20.122196
33.199314 -62.152328 -23.401716
34.136124 -61.840858 -24.841787
34.888962 -61.525581 -25.7178
35.604462 -61.176376 -26.492908
36.618626 -60.66713 -27.795982
37.770466 -60.038162 -29.301373
38.694981 -59.440575 -30.252701
39.141113 -59.080933 -30.513458
39.746429 -58.672497 -31.05434
40.237804 -58.317249 -31.549152
40.694302 -57.942486 -31.837177
41.178017 -57.579243 -32.22467
41.867355 -57.010361 -32.905075
42.220692 -56.705715 -33.175907
42.722813 -56.25172 -33.463089
43.248333 -55.788757 -33.91354
43.641518 -55.43108 -34.212986
44.368828 -54.734135 -34.81348
44.937279 -54.16396 -35.176983
45.363834 -53.745495 -35.529713
46.152996 -52.972237 -36.259956
46.674416 -52.468407 -36.756535
47.098274 -52.019581 -37.181423
47.85548 -51.200985 -37.766918
48.25589 -50.770607 -38.176838
-46.885101 -52.442291 -37.79427
-46.340561 -53.022194 -37.142525
-45.725761 -53.649387 -36.59034
-44.608547 -54.76297 -35.346222
-38.739365 -57.915928 -21.945242
-30.723675 -57.357384 -7.6602945
-31.476696 -57.48225 -8.8206396
-35.463135 -58.405441 -15.975183
-36.760056 -58.928345 -19.789095
-35.812344 -59.123131 -18.082647
-33.616852 -58.893997 -13.701235
-31.106346 -58.707317 -9.6874771
-30.529945 -58.844673 -9.0119696
-30.185253 -59.040825 -8.8234529
-29.812634 -59.199127 -8.4642239
-29.02478 -59.3489 -7.6079369
-28.904423 -59.573349 -7.7435627
-28.248158 -59.616165 -7.1407204
-28.25317 -59.874336 -7.4832411
-27.428871 -59.88018 -6.5317831
-27.378899 -60.200752 -6.7949972
-25.967049 -60.073631 -5.0117693
-25.417759 -60.20108 -4.4850292
-24.788818 -60.18824 -3.8756323
-23.623528 -60.095947 -2.6034546
-23.095928 -60.195763 -2.1555758
-22.532986 -60.30072 -1.7606449
-22.462048 -60.543365 -1.9523563
-21.935936 -60.603752 -1.5703373
-21.273724 -60.667007 -1.0314007
-20.916412 -60.730469 -0.86665535
-18.957813 -60.236832 1.2275677
-17.610229 -59.881767 2.6118708
-17.160431 -59.91452 2.8754215
-16.663879 -60.013283 3.0744905
-16.321362 -60.186852 3.1408377
-15.800986 -60.287605 3.2911825
-15.929252 -60.765175 2.7735262
-16.26033 -61.378075 1.982172
-16.332993 -61.951065 1.374404
-15.992911 -62.227295 1.2838993
-15.402219 -62.466232 1.4212961
-13.82203 -61.923698 2.8670111
-12.44925 -61.274567 4.1539001
-11.465154 -60.998543 4.79741
-10.953511 -61.183105 4.8070383
-10.320598 -61.239716 4.9449587
-9.5305147 -61.152504 5.2245665
-8.8423872 -61.095276 5.4506655
-8.2385263 -61.346016 5.3448057
-7.8122129 -62.419983 4.5169096
-7.0119915 -62.232033 4.8377581
-6.3318901 -62.600548 4.6032228
-5.4923096 -62.191956 5.0282755
-4.7622442 -62.511772 4.7815332
-3.940115 -61.43145 5.765748
-3.2003393 -60.821167 6.3181295
-2.4482584 -61.15036 6.0450907
-1.6420527 -61.905678 5.4743471
-0.88317108 -61.695076 5.67377
-0.2207613 -61.206734 6.0831614
0.56587315 -61.611176 5.7275305
1.3164482 -61.618134 5.7052774
1.9372253 -61.420654 5.8364668
2.6268797 -61.138023 6.0412645
3.3894143 -61.467369 5.6871958
4.4477663 -62.062645 4.9467402
5.107851 -61.925758 4.9329329
5.7911234 -61.853371 4.8295374
6.241703 -61.515022 5.0401011
7.1434994 -61.759094 4.5402231
7.3562198 -61.345528 4.8424368
7.7239227 -61.086227 4.9295053
8.262558 -61.016884 4.8079958
9.022418 -61.072639 4.4227648
10.170104 -61.47728 3.5535593
11.014125 -61.602577 3.0625277
11.255639 -61.267677 3.1802416
11.468029 -61.002914 3.2991476
11.975817 -60.947113 3.0661497
12.813822 -61.048042 2.4770947
14.184314 -61.307777 1.3188324
14.929013 -61.373116 0.79427528
15.260394 -61.142281 0.74034214
15.557082 -61.015862 0.70549583
15.850628 -60.907074 0.64402866
16.874603 -61.066475 -0.27744102
18.87874 -61.533249 -2.4272966
19.295074 -61.472939 -2.6843386
19.740294 -61.317841 -2.9158964
20.370621 -61.233147 -3.3665895
20.996105 -61.246468 -3.9536123
22.173979 -61.379501 -5.204093
23.283411 -61.496071 -6.4414301
24.030825 -61.376175 -7.1725607
24.685364 -61.294144 -7.8104496
24.864231 -61.047913 -7.5927172
25.869164 -61.088448 -8.8567581
26.846104 -61.085869 -10.05233
29.28043 -61.467934 -14.41002
30.751175 -61.479248 -17.020748
32.806843 -61.714569 -21.62447
33.918022 -61.559288 -23.722067
34.611897 -61.277809 -24.593605
35.276722 -60.935333 -25.223412
35.881771 -60.676628 -25.74736
37.422153 -60.071327 -28.307968
38.944923 -59.187416 -30.274368
39.354683 -58.886238 -30.547913
39.905109 -58.488342 -30.974228
40.415642 -58.105839 -31.447578
40.929569 -57.732235 -31.895409
41.395187 -57.344982 -32.22916
41.980732 -56.841354 -32.675026
42.637856 -56.270069 -33.197247
42.951324 -55.995159 -33.387695
43.437302 -55.56863 -33.74979
43.916729 -55.129959 -34.168251
44.542122 -54.517155 -34.655117
45.095566 -53.959236 -35.039375
45.637951 -53.453678 -35.464497
46.254852 -52.830429 -35.9589
46.727127 -52.366699 -36.430714
47.254642 -51.835514 -36.968113
47.909363 -51.119522 -37.68898
48.505428 -50.471069 -38.089622
49.040436 -49.864361 -38.57822
-47.782581 -51.376945 -38.670353
-46.887833 -52.426262 -37.676697
-46.331593 -53.032661 -37.026245
-45.688255 -53.670307 -36.192558
-43.889336 -55.419525 -33.853466
-33.061733 -56.380215 -10.16622
-29.239647 -56.718704 -5.7380924
-29.277187 -56.993484 -6.0455294
-35.02787 -57.703667 -14.694473
-37.745899 -58.53112 -21.655312
-36.067596 -58.537331 -18.025497
-33.935123 -58.394142 -13.950294
-32.169266 -58.256611 -11.03852
-31.325619 -58.364578 -10.021886
-30.817905 -58.532555 -9.5967665
-29.894356 -58.509842 -8.3120098
-28.477005 -58.552673 -6.5007887
-28.334335 -58.726372 -6.7140293
-27.343197 -58.782509 -5.5837631
-27.704498 -59.017334 -6.3038082
-26.818127 -59.077568 -5.4095612
-27.282993 -59.343109 -6.309639
-26.360252 -59.415016 -5.2658443
-25.441792 -59.448105 -4.2814655
-24.664062 -59.470055 -3.4728775
-23.664536 -59.380814 -2.431201
-23.218307 -59.469261 -2.1218119
-22.492603 -59.53231 -1.4868221
-22.377579 -59.782829 -1.5996256
-22.044998 -59.952072 -1.5137215
-21.367146 -59.987022 -0.95420551
-21.090122 -60.157898 -0.88680744
-19.483135 -59.749901 0.77772522
-17.773052 -59.355896 2.6076365
-17.270866 -59.417381 2.8642626
-16.84166 -59.417374 3.0255079
-16.521751 -59.660164 3.0435562
-16.581367 -60.028648 2.6482286
-16.729565 -60.559822 2.0336838
-16.540653 -60.878006 1.8508587
-16.41048 -61.193459 1.6164074
-15.979262 -61.471863 1.6004839
-15.529449 -61.754486 1.5859499
-14.324018 -61.51371 2.5246611
-12.709615 -60.835785 3.9996777
-11.861724 -60.586884 4.5530443
-11.142083 -60.630127 4.7940226
-10.315911 -60.567375 5.1451731
-9.5331354 -60.459885 5.4685049
-8.8555613 -60.436295 5.6618433
-8.3232965 -60.832855 5.4123354
-7.7906027 -61.554802 4.9221125
-7.0021324 -61.338554 5.2120562
-6.29883 -61.659592 5.0051222
-5.5046978 -61.50769 5.2281656
-4.768301 -62.180496 4.7067156
-3.9509773 -61.140442 5.6587687
-3.134881 -60.708984 6.056695
-2.3937244 -61.057076 5.7857885
-1.6345892 -61.251755 5.6727114
-0.88617611 -61.135574 5.7503328
-0.17820549 -60.799171 6.0671759
0.58177662 -61.136765 5.7959528
1.32762 -61.055199 5.8549337
1.9717636 -60.626785 6.1481409
2.6338391 -60.409935 6.2346029
3.4314537 -60.746758 5.8903818
4.3037114 -61.017334 5.515172
4.8942571 -60.936424 5.4685602
5.6279211 -60.882256 5.3367624
6.1485496 -60.686523 5.3706598
7.3052912 -61.154823 4.6207895
7.6673489 -60.830711 4.7563677
8.035037 -60.598686 4.8694048
8.4911432 -60.464806 4.7865839
9.3924789 -60.644264 4.2513456
10.39313 -60.839241 3.5946341
11.311172 -60.96431 3.0088196
11.809487 -60.867371 2.8209705
12.080089 -60.652092 2.8639507
12.375622 -60.478195 2.8641748
12.797217 -60.361572 2.7092361
13.606995 -60.387367 2.1706896
14.496853 -60.484322 1.5152493
14.923665 -60.419922 1.2817097
15.54659 -60.393875 0.91299343
15.897917 -60.273323 0.77252007
16.840851 -60.365143 -0.024477959
18.948856 -60.911308 -2.2861729
19.494549 -60.832291 -2.6443176
19.847687 -60.644913 -2.7597275
20.595875 -60.635506 -3.3973398
21.200058 -60.557198 -3.9142809
21.874874 -60.543388 -4.5028811
23.332302 -60.754684 -6.1519804
24.189472 -60.839409 -7.1371117
24.882965 -60.710739 -7.7368469
25.039242 -60.479042 -7.511342
25.879272 -60.463852 -8.4951401
26.674419 -60.471939 -9.3623676
28.671902 -60.669739 -12.505405
30.175911 -60.744667 -14.969256
31.846092 -60.981194 -18.467581
33.639622 -61.139351 -22.212193
34.427364 -60.879433 -23.289032
35.046097 -60.607971 -23.981148
35.526333 -60.334938 -24.258993
36.374249 -60.108307 -25.53614
38.993389 -59.071152 -29.960983
39.646507 -58.628727 -30.594383
40.079628 -58.305027 -30.966091
40.603802 -57.92701 -31.397186
41.119373 -57.516193 -31.812603
41.673058 -57.049259 -32.213921
42.096317 -56.694378 -32.561306
42.603848 -56.266209 -32.907593
43.136715 -55.807915 -33.323093
43.58733 -55.408607 -33.670078
44.071201 -54.94035 -34.017834
44.804775 -54.24176 -34.620213
45.30228 -53.75259 -34.979755
45.830151 -53.210144 -35.343216
46.415169 -52.646282 -35.901913
46.938587 -52.117798 -36.355404
47.404549 -51.65905 -36.762592
48.122982 -50.862419 -37.543121
48.842525 -50.020443 -38.172127
49.318771 -49.523727 -38.649189
-47.729145 -51.429905 -38.513512
-47.216537 -52.022987 -37.81123
-46.448387 -52.912037 -36.961346
-45.645687 -53.673592 -35.876522
-44.121185 -55.153286 -33.785385
-37.017235 -56.53973 -16.558266
-30.263683 -55.954502 -6.6636133
-33.920261 -56.490753 -11.866941
-39.179008 -57.962036 -24.262772
-38.973427 -58.262928 -24.563168
-36.253513 -58.057152 -17.966225
-34.126995 -57.774364 -13.844289
-32.543285 -57.655521 -11.292519
-31.787903 -57.829239 -10.44692
-31.544327 -58.062565 -10.492653
-30.623138 -58.083004 -9.3126364
-28.631817 -57.973942 -6.6019764
-27.933815 -58.006966 -5.960578
-27.211441 -58.102409 -5.2084923
-27.331455 -58.306446 -5.5602579
-26.819199 -58.462025 -5.1946754
-27.239403 -58.705315 -6.0266037
-26.661976 -58.830566 -5.4968176
-25.772892 -58.824127 -4.4284
-25.375031 -58.922653 -4.2759399
-24.285172 -58.918457 -3.0713806
-23.702808 -58.972137 -2.6169014
-22.392651 -58.78511 -1.1193714
-21.957615 -58.966347 -0.89985085
-21.824863 -59.122047 -1.0309629
-21.62912 -59.343201 -1.0398178
-21.56097 -59.580017 -1.2470846
-19.95496 -59.181007 0.47569561
-17.864296 -58.807068 2.5943584
-17.276272 -58.739128 2.9723253
-16.746429 -58.78899 3.2681112
-16.331848 -58.874222 3.4158773
-16.638912 -59.376663 2.7259264
-16.992115 -59.943901 1.9681368
-16.756653 -60.179298 1.8361931
-16.348644 -60.394104 1.9129896
-15.864026 -60.56366 2.0565224
-15.447614 -60.785164 2.0751505
-14.605845 -60.852257 2.4650021
-13.004409 -60.245865 3.9159451
-11.960242 -60.016144 4.6091394
-11.338035 -60.076805 4.7508936
-10.71342 -60.212151 4.8257151
-9.9292097 -60.255226 5.1057482
-9.1270971 -60.197182 5.3577433
-8.5134668 -60.371918 5.3186522
-7.8044806 -60.667305 5.2139463
-6.9699688 -60.489906 5.5250521
-6.2132187 -60.642326 5.4802809
-5.4974461 -60.946388 5.3251505
-4.7446318 -61.492302 4.9157
-3.9833736 -61.245369 5.139863
-3.1499166 -60.383781 5.9741659
-2.3991404 -60.584641 5.8296671
-1.6041651 -60.463356 5.9515886
-0.85303593 -60.413338 5.9913607
-0.16860867 -60.274948 6.1749849
0.64611006 -60.55011 5.8783274
1.4021506 -60.418922 6.0024233
2.0021353 -59.982719 6.3322458
2.6263413 -59.831299 6.3903284
3.447721 -60.08651 6.090661
4.1514711 -60.156685 5.9055891
4.606678 -59.827774 6.0634508
5.394536 -59.819305 5.9335451
5.9447966 -59.806175 5.8284311
6.8590484 -59.966827 5.3812723
7.6576738 -60.013786 5.0746946
8.053791 -59.902946 5.0444498
8.5930672 -59.859283 4.8672228
9.4112263 -59.954109 4.437932
10.307175 -60.029221 3.9211235
11.071063 -60.142143 3.4450169
11.956817 -60.240387 2.8730822
12.72629 -60.254066 2.3871031
13.194884 -60.105995 2.245697
13.25139 -59.892075 2.4560051
13.420168 -59.658531 2.5769215
14.142921 -59.719635 2.0652132
14.988454 -59.774002 1.4503307
15.921103 -59.865387 0.6707859
16.247185 -59.671059 0.61192417
17.001322 -59.767456 0.016740799
18.802624 -60.143417 -1.8546581
19.387154 -60.041977 -2.2699928
19.830526 -59.949684 -2.4976168
20.436626 -59.888344 -2.926734
21.196018 -59.909737 -3.6308355
21.905294 -59.865334 -4.2761421
23.179033 -60.04641 -5.632369
24.274151 -60.156487 -6.8425217
24.673847 -60.023209 -7.0918121
24.86644 -59.762199 -6.9562054
25.557911 -59.673935 -7.5774803
26.550312 -59.743149 -8.7659483
27.93869 -59.806046 -10.593282
29.059715 -59.810776 -12.121123
30.568745 -59.89296 -14.488782
33.409008 -60.499146 -20.689606
34.692947 -60.548927 -23.345921
35.419666 -60.25528 -24.146187
35.634125 -60.031052 -23.925737
36.27515 -59.815132 -24.751507
38.859871 -58.997101 -29.282578
39.755241 -58.44698 -30.319962
40.180569 -58.147091 -30.739624
40.703705 -57.778957 -31.225471
41.389557 -57.219078 -31.783665
41.886421 -56.809723 -32.145138
42.310677 -56.459866 -32.459877
42.764732 -56.076946 -32.80933
43.247593 -55.673496 -33.172649
43.820976 -55.148521 -33.571114
44.225471 -54.761715 -33.805977
44.969742 -54.027653 -34.456936
45.428322 -53.584 -34.866879
45.961067 -53.069839 -35.238735
46.557259 -52.475357 -35.787582
46.979549 -52.05883 -36.172626
47.523483 -51.517761 -36.766205
48.203976 -50.751873 -37.283997
48.964069 -49.8773 -37.995487
49.412117 -49.396885 -38.609669
49.827034 -48.911526 -38.871597
-48.361771 -50.703526 -38.800869
-47.957901 -51.172554 -38.485207
-47.375938 -51.837284 -37.788799
-46.5172 -52.796803 -36.536423
-45.544781 -53.718208 -35.251072
-44.190907 -55.016022 -33.352371
-42.160549 -56.47047 -29.334991
-37.825676 -56.481106 -18.359173
-39.139481 -57.186146 -22.603804
-39.174683 -57.561119 -23.572952
-38.584003 -57.715374 -22.5453
-35.338177 -57.189434 -15.342289
-33.162788 -56.908382 -11.62501
-31.939766 -56.841049 -10.023664
-31.675259 -57.080059 -9.9199295
-31.482956 -57.318649 -10.035209
-30.710556 -57.45953 -9.1772966
-29.83461 -57.481598 -8.1771059
-28.24987 -57.423038 -6.1548147
-27.48317 -57.487854 -5.3584051
-27.403706 -57.685329 -5.519311
-27.64043 -57.903164 -6.0668259
-27.458057 -58.104378 -6.0683317
-26.813309 -58.158607 -5.4759197
-25.910927 -58.143814 -4.5169706
-25.736023 -58.332226 -4.5241213
-24.517662 -58.267235 -3.1945648
-23.636185 -58.250034 -2.3270445
-22.438732 -58.130722 -1.0409937
-22.329243 -58.340691 -1.212532
-22.394958 -58.607891 -1.5194464
-22.313267 -58.819832 -1.6542997
-21.906025 -58.945297 -1.4215393
-20.442848 -58.7136 0.059659958
-18.738811 -58.331642 1.759902
-17.51273 -58.147633 2.8538284
-16.921356 -58.109688 3.2498474
-16.36274 -58.203712 3.5646019
-16.923134 -58.707146 2.6261539
-17.137966 -59.183617 2.0145397
-16.810688 -59.442261 1.9991732
-16.347748 -59.602592 2.1385469
-15.699105 -59.693626 2.5021849
-15.170829 -59.792122 2.6511011
-14.518556 -59.880287 2.8744917
-13.617894 -59.923973 3.4018345
-11.814727 -59.177689 4.9436998
-11.303123 -59.25753 4.9869089
-11.134021 -59.883682 4.4311323
-10.579923 -60.24527 4.2835236
-9.7059908 -60.218712 4.5893641
-8.6657705 -59.952065 5.1853647
-7.9025984 -60.032997 5.2890787
-6.9944544 -59.808495 5.6638193
-6.2348995 -59.941689 5.6648188
-5.4849157 -60.025391 5.6797953
-4.7177162 -60.431862 5.3732576
-3.92066 -60.453453 5.3803263
-3.1051502 -59.994057 5.8717203
-2.360651 -59.844864 6.0623064
-1.5681744 -59.703712 6.2193575
-0.82379723 -59.645363 6.2548285
-0.14922142 -59.681725 6.2385244
0.76511908 -60.202942 5.7607164
1.5294466 -59.995056 5.8678217
2.1803379 -59.530533 6.2656107
2.8068366 -59.384857 6.3302622
3.5303097 -59.459595 6.1854334
4.1997843 -59.382622 6.1097536
4.7182074 -59.144005 6.1935282
5.363122 -59.100594 6.1062326
6.0050507 -59.16153 5.9589033
6.7108812 -59.141075 5.7460489
7.3673725 -59.170013 5.5070581
7.838582 -59.031342 5.4868212
8.64853 -59.174301 5.0307589
9.5271149 -59.263397 4.5253077
10.266745 -59.3153 4.1427431
10.960653 -59.315819 3.7717466
11.94835 -59.456299 3.1045675
13.058945 -59.665009 2.2565918
13.783871 -59.659828 1.8683224
13.782238 -59.415176 2.1208754
13.75544 -59.086945 2.4396486
14.287914 -59.015999 2.1453276
15.563911 -59.243416 1.0666599
16.886848 -59.487434 -0.14935684
17.177387 -59.325256 -0.20351219
17.038036 -58.980217 0.2217741
18.005081 -59.09523 -0.64560032
18.96912 -59.175331 -1.5124741
19.515804 -59.120689 -1.8509102
20.363106 -59.148201 -2.5684738
20.942923 -59.087639 -3.0288048
21.693544 -59.121605 -3.7292671
22.213814 -59.019142 -4.1039972
23.674522 -59.247894 -5.7035809
24.205097 -59.103783 -6.0674238
24.54665 -58.972267 -6.1935043
25.349903 -58.924919 -6.9858599
26.329182 -59.002663 -8.090188
27.556217 -59.044563 -9.5416985
28.713562 -59.072159 -10.992231
30.212578 -59.15226 -13.206072
33.279072 -59.961754 -19.701069
35.037483 -60.154976 -23.470943
35.708435 -59.892265 -24.197817
36.044521 -59.647942 -24.255186
36.577259 -59.356956 -24.64547
38.38887 -58.91803 -27.813309
39.720886 -58.319057 -29.837959
40.296036 -57.974079 -30.520092
40.959465 -57.474598 -31.157787
41.494274 -57.060577 -31.563843
42.038734 -56.610798 -31.89286
42.545185 -56.208096 -32.355976
43.034428 -55.780636 -32.708385
43.53212 -55.35157 -32.95797
44.052589 -54.890079 -33.431866
44.679028 -54.242668 -33.868137
45.085949 -53.860931 -34.160042
45.620125 -53.354279 -34.739368
45.991142 -53.00119 -35.064247
46.593121 -52.408661 -35.61861
47.070339 -51.926292 -36.041512
47.636112 -51.36121 -36.619164
48.36261 -50.544651 -37.174549
49.056618 -49.778099 -37.824162
49.623695 -49.145596 -38.381973
50.092827 -48.612869 -38.807228
50.561829 -48.037643 -39.204914
-48.810616 -50.143444 -39.105896
-48.454048 -50.602787 -38.742023
-48.11964 -50.978321 -38.38747
-47.572002 -51.601215 -37.801071
-46.527454 -52.752621 -36.122429
-44.922581 -54.26096 -33.840286
-44.013569 -55.052864 -32.520279
-42.51918 -56.064503 -29.613007
-39.605721 -56.42458 -22.316658
-39.024929 -56.665115 -21.540138
-38.197453 -56.729107 -20.035686
-37.646832 -56.927429 -19.335081
-35.430241 -56.560383 -15.053844
-34.005215 -56.372108 -12.740047
-32.256786 -56.28595 -10.198107
-32.065281 -56.476299 -10.212574
-31.991814 -56.742008 -10.462793
-30.966736 -56.758656 -9.264555
-30.332851 -56.954029 -8.6454983
-28.884285 -56.78093 -6.7881031
-27.753895 -56.830696 -5.4527483
-27.021278 -56.943619 -4.8355713
-27.718102 -57.223206 -5.9748831
-27.369373 -57.342022 -5.7900229
-26.954178 -57.464924 -5.4797268
-26.290981 -57.494316 -4.8104153
-25.711098 -57.632156 -4.2766685
-24.666805 -57.541409 -3.1656561
-23.708099 -57.559494 -2.2479677
-23.010731 -57.598827 -1.6023264
-22.652828 -57.70121 -1.3938951
-22.443096 -57.848244 -1.3865976
-22.524788 -58.083241 -1.7101421
-22.116791 -58.219162 -1.4823322
-21.148979 -58.186371 -0.60484409
-19.386036 -57.832348 1.1979837
-18.078087 -57.696079 2.395793
-16.847954 -57.495262 3.4731197
-16.336185 -57.572014 3.7253847
-16.922596 -58.015247 2.8167667
-17.175426 -58.36171 2.199317
-16.951389 -58.633324 2.079896
-16.501324 -58.888771 2.1776857
-15.505326 -58.749023 2.9009333
-15.017989 -58.959793 3.0057764
-14.13231 -58.895927 3.5171976
-13.721538 -59.070862 3.5054235
-11.695449 -58.339603 5.2386827
-11.450513 -58.707161 4.9587717
-11.283206 -59.21711 4.4211168
-10.692491 -59.478271 4.3648357
-9.8771639 -59.58577 4.5019445
-8.8508158 -59.266869 5.1379995
-8.0561304 -59.34333 5.2794256
-7.0724525 -59.128304 5.7328577
-6.2495193 -59.112312 5.8935022
-5.4929142 -58.957436 6.1424913
-4.7286844 -59.438148 5.7909842
-3.9646883 -59.583626 5.7142763
-3.1382666 -59.369926 6.0044756
-2.333169 -59.091759 6.2761469
-1.5416431 -58.847878 6.4776011
-0.85769844 -58.666893 6.6241999
-0.11410522 -58.958046 6.3559961
0.83304262 -59.410164 5.8721151
1.6547132 -59.390572 5.8679991
2.3046823 -59.114563 6.1028681
3.0053291 -58.989204 6.141551
3.8213797 -58.997345 6.0185041
4.2760892 -58.733707 6.185029
4.7406158 -58.430141 6.3655214
5.3176317 -58.446632 6.253438
6.0545502 -58.465256 6.0462141
6.7826099 -58.500702 5.8227625
7.3020411 -58.450127 5.7139635
7.7731562 -58.314522 5.707963
8.6743965 -58.499718 5.1717882
9.6267166 -58.643551 4.5608816
10.333799 -58.705681 4.2250433
10.887791 -58.638451 4.015564
11.921799 -58.736195 3.2955856
13.157106 -58.925125 2.3629589
13.878485 -58.961433 1.9267359
14.328138 -58.854561 1.7364225
14.214581 -58.585106 2.1605892
14.832333 -58.545364 1.7540283
16.066078 -58.727345 0.71936798
17.104286 -58.831779 -0.15259457
17.314188 -58.645412 -0.14486885
17.233852 -58.395287 0.16936779
17.87726 -58.4086 -0.31518745
18.828993 -58.408859 -1.1174059
19.460251 -58.367416 -1.6009502
20.065426 -58.316982 -2.0182648
20.636009 -58.28067 -2.4540548
